 -6.2030800e-002  1.7213300e-001 -5.4346900e-002
 -3.6655300e-002  1.7199900e-001 -1.2574500e-002
 -5.3797600e-002  1.3078200e-001  3.4499300e-002
 -6.5636100e-002  1.3326400e-001  4.2861400e-002
  4.2475100e-002  1.0149200e-001  1.3160200e-002
 -3.9498100e-002  1.6898700e-001  2.2469900e-003
 -3.5769600e-002  1.7429900e-001 -2.1647100e-003
 -9.3196100e-002  1.1944500e-001  2.5302400e-002
  4.5498600e-002  8.9697400e-002  4.1768000e-003
 -4.2411800e-003  1.1314400e-001  4.1661400e-002
 -4.5780600e-002  1.6294100e-001 -8.2295400e-003
 -4.1145400e-002  1.6291900e-001 -1.1414900e-002
 -5.1725300e-002  6.8603900e-002  3.7709200e-002
 -3.6825100e-002  9.2201200e-002 -2.3736200e-002
 -7.2354800e-002  1.3921500e-001  4.7895800e-002
 -8.3551500e-002  1.5136200e-001  3.0502500e-002
 -6.1407400e-002  1.5550900e-001  6.5465700e-003
 -6.8293200e-002  1.6591200e-001 -5.3999400e-002
 -1.1543600e-003  1.2574100e-001  3.1881400e-002
 -2.5089300e-002  1.2621600e-001  9.8922200e-003
 -3.9995400e-002  1.2836400e-001  4.4111900e-003
 -7.4883200e-002  1.4893200e-001  3.9945500e-002
 -7.1972000e-002  1.6213900e-001 -1.1132800e-002
 -5.8615200e-002  4.3703200e-002  4.4024400e-002
 -3.8489400e-002  4.3651300e-002  4.0996300e-002
 -1.3319400e-002  1.2894200e-001  1.9244700e-002
 -2.2538400e-002  1.2627700e-001  4.2691600e-003
 -2.7808000e-002  1.2467900e-001  1.3595100e-003
 -2.9479300e-002  4.4608300e-002  5.0399400e-002
 -2.7672500e-002  4.5183900e-002  5.0603300e-002
 -2.5271300e-002  4.5563500e-002  5.1558800e-002
 -2.2201100e-002  4.4782000e-002  5.3060100e-002
 -1.9473900e-002  4.5297600e-002  5.2250700e-002
 -1.6526000e-002  4.5336600e-002  5.0995500e-002
 -1.4037400e-002  4.4600200e-002  5.0447900e-002
 -1.3285900e-002  4.5550500e-002  4.9530600e-002
 -1.0535400e-002  4.5138600e-002  4.8783100e-002
 -7.5171800e-003  4.5062000e-002  4.7825300e-002
 -5.1786400e-003  4.4784900e-002  4.7324300e-002
 -3.8357400e-003  4.5211500e-002  4.6987800e-002
 -1.5025300e-003  4.4953200e-002  4.6710600e-002
  1.4994400e-003  4.4193900e-002  4.5995200e-002
  4.5031900e-003  4.4162200e-002  4.5879000e-002
  7.4790000e-003  4.4961000e-002  4.6331300e-002
 -1.4533800e-003  1.2190100e-001  3.6248300e-002
  7.2862000e-003  1.1328700e-001  4.0232300e-002
 -8.0737400e-002  1.4917900e-001  3.6859400e-002
 -8.0660900e-002  1.4764800e-001  3.9039500e-002
 -7.7738400e-002  1.4832000e-001  3.9920900e-002
 -4.4419500e-002  1.2803500e-001  1.9279400e-002
 -8.0878500e-002  1.3076600e-001  5.2251400e-002
 -5.0926000e-002  1.5427200e-001  1.1181000e-002
  3.8036400e-002  9.9059400e-002 -8.8013800e-003
  4.5227000e-002  8.9687500e-002  1.6163000e-002
  1.3724300e-003  1.0420200e-001 -2.1983600e-002
 -7.4135100e-002  8.9753100e-002 -1.5012700e-002
 -7.1805300e-002  9.0071100e-002 -1.5956900e-002
 -6.8809400e-002  9.0145500e-002 -1.6815700e-002
  2.5714500e-002  1.1959500e-001  2.8585200e-002
 -3.8756600e-002  1.6581300e-001  2.4115100e-003
 -4.2803000e-003  1.3094800e-001  1.6143800e-002
 -7.3451000e-002  1.3564800e-001  5.0117700e-002
  7.3539000e-003  1.3047000e-001  2.1980500e-002
 -6.6081600e-002  1.5497400e-001  4.7479400e-003
 -6.6850800e-002  1.5924300e-001 -1.0216100e-002
 -2.2903000e-002  9.0197400e-002  5.2633400e-002
 -3.4362100e-002  1.2706200e-001  4.7907000e-003
 -4.4090600e-003  9.8224100e-002  5.1807900e-002
 -1.2775500e-002  1.2677600e-001  2.6734100e-002
 -1.3099100e-002  1.2751300e-001  2.4913300e-002
  4.8358900e-002  6.9084200e-002  2.4971000e-002
 -5.7434300e-002  4.5635300e-002  4.2971800e-002
 -5.4322000e-002  4.5843200e-002  4.3042200e-002
 -5.1506300e-002  4.5906700e-002  4.2533400e-002
 -4.8506500e-002  4.5193200e-002  4.2407500e-002
 -4.5497400e-002  4.5182200e-002  4.1979100e-002
 -4.2494300e-002  4.5153200e-002  4.1475900e-002
 -4.0495500e-002  4.5140700e-002  4.1463900e-002
 -3.9296400e-002  4.5902900e-002  4.0657300e-002
 -3.7139000e-002  4.5711700e-002  4.0539800e-002
 -6.9586900e-002  1.5664800e-001 -1.5302400e-003
 -8.7535800e-002  1.5200200e-001  2.2759400e-002
 -7.2092600e-002  1.5526000e-001  2.7633000e-002
 -7.4957900e-002  1.5553000e-001  2.5024000e-002
 -7.0116400e-003  9.8341600e-002  5.1493100e-002
  3.0079100e-002  1.1567000e-001 -4.3046500e-003
 -9.2234700e-002  1.1678700e-001  3.3809700e-002
 -3.0487500e-002  4.5662600e-002  4.8669500e-002
 -2.2491400e-002  4.6201800e-002  5.2266700e-002
  1.5089700e-003  4.5821600e-002  4.7670500e-002
  4.5013400e-003  4.5945600e-002  4.8419700e-002
  6.9742800e-003  4.5913100e-002  4.8106100e-002
  1.0751800e-002  4.5431300e-002  4.5325500e-002
 -3.6493200e-002  1.1523800e-001  3.2830600e-002
 -3.3511700e-002  1.1527800e-001  3.3032500e-002
 -4.8915500e-002  1.1560500e-001  3.3237700e-002
 -1.4935100e-003  1.1349600e-001  4.1797500e-002
  4.3224500e-002  8.3900300e-002 -4.7911800e-003
 -7.4915000e-003  1.1416300e-001  4.0909500e-002
 -6.7331600e-002  1.4548500e-001  4.1722700e-002
 -3.9102300e-002  1.7401900e-001 -4.2372000e-003
  1.8960900e-002  1.2551500e-001  2.4866400e-002
 -1.6300400e-002  1.2853200e-001  1.0037600e-002
 -2.2150000e-002  1.2482300e-001  2.1967400e-002
  4.0267600e-002  1.0492100e-001  1.9168000e-002
  3.0685800e-002  4.3106900e-002  2.9970600e-002
  3.3764500e-002  4.2779400e-002  2.8632200e-002
 -4.8095200e-002  1.5687100e-001 -6.8988900e-003
 -2.7514500e-002  1.7464700e-001 -1.8112700e-002
  2.7563000e-002  8.9405500e-002 -2.1826800e-002
 -3.0823100e-002  9.2302300e-002 -2.4637700e-002
 -8.9983600e-002  1.5099000e-001  1.6011600e-002
  3.4115600e-002  1.1326500e-001  2.5167700e-002
  3.7537400e-002  1.0768800e-001  2.5526500e-002
 -2.4538400e-002  1.8097400e-001 -9.7459800e-003
  2.7483100e-002  9.2112500e-002  4.4802600e-002
  7.3692800e-003  1.2828100e-001  2.7801100e-002
 -2.7919500e-002  1.2577800e-001  1.0321800e-002
 -8.8715000e-002  1.2194200e-001  1.7967200e-003
 -4.1867900e-003  9.9605500e-002  4.9599500e-002
 -6.4140700e-002  1.5395900e-001 -7.6500700e-003
 -2.4387000e-002  8.9774600e-002  5.1107100e-002
 -4.8498800e-002  4.6487000e-002  4.0952600e-002
 -4.5498100e-002  4.6488700e-002  4.0838200e-002
 -4.2497900e-002  4.6484100e-002  4.0724700e-002
 -2.5511800e-002  9.3619500e-002 -2.9375500e-002
 -3.0837800e-002  1.2425700e-001 -1.1667000e-003
 -2.7989600e-002  4.7581500e-002  4.8553200e-002
 -2.4951900e-002  4.7400900e-002  5.0520800e-002
 -2.2490400e-002  4.7472100e-002  5.1028800e-002
 -1.9512200e-002  4.7413300e-002  5.0575900e-002
 -1.6508200e-002  4.8223000e-002  4.8415200e-002
 -1.3499200e-002  4.7923100e-002  4.8225400e-002
 -1.0494500e-002  4.7973400e-002  4.8564700e-002
 -7.5083100e-003  4.7150400e-002  4.7925500e-002
 -4.4938400e-003  4.7329400e-002  4.8868800e-002
 -1.4860200e-003  4.7434000e-002  4.9351600e-002
  1.5080100e-003  4.7437900e-002  4.9825700e-002
  4.3002700e-003  4.8356500e-002  5.0781000e-002
  5.4943500e-003  4.7470900e-002  5.0004500e-002
  7.4850400e-003  4.7385100e-002  4.9336300e-002
  1.0349200e-002  4.8315600e-002  4.8371800e-002
 -7.7971700e-002  1.3724300e-001  4.9801700e-002
 -5.8285700e-002  1.5168000e-001  3.2944700e-002
 -4.9912200e-003  1.1418700e-001  4.1059200e-002
 -7.5004200e-002  1.3726200e-001  4.9701600e-002
 -7.2068800e-002  1.3645600e-001  4.9066200e-002
 -6.9394000e-002  1.4876800e-001  4.0099700e-002
 -6.6662500e-002  1.4858200e-001  3.9268400e-002
 -8.1475200e-002  9.3028000e-002 -8.0706700e-003
 -7.8303200e-002  1.4270100e-001  4.5668900e-002
 -7.4913800e-002  1.5082100e-001  3.7084700e-002
  3.3646700e-002  4.5727200e-002  3.0329700e-002
  3.6570800e-002  4.5733300e-002  3.0602700e-002
  3.9601900e-002  4.5995800e-002  3.0881800e-002
 -4.2351300e-002  1.6014000e-001  4.4641800e-003
  3.2003100e-002  1.1703600e-001  2.2470100e-002
 -4.1499500e-002  1.6820600e-001  2.9629100e-003
  3.9017600e-002  1.0482000e-001  2.5331200e-002
 -2.5323400e-002  1.8299800e-001 -1.0816800e-002
 -2.3050800e-002  1.8323500e-001 -1.1015700e-002
 -1.0051500e-002  1.3016200e-001  1.3467400e-002
 -1.9275900e-002  1.2778200e-001  1.0401400e-002
  1.4001200e-003  1.2816500e-001  2.8187100e-002
  1.0385100e-002  1.2261200e-001  3.4358900e-002
 -6.8999200e-002  1.5031100e-001  3.8404400e-002
 -7.5250300e-002  1.6103400e-001 -1.2233100e-002
 -6.8729800e-002  1.6074000e-001 -1.0159500e-002
 -4.3982700e-003  1.3026300e-001  2.1880100e-002
 -6.3409400e-002  1.5148600e-001 -4.3468400e-003
 -6.6506300e-002  1.5707200e-001 -7.3095600e-003
 -6.9427800e-002  1.5964800e-001 -7.5460500e-003
 -5.7196800e-002  4.7515700e-002  3.9705500e-002
 -5.4647500e-002  4.8098800e-002  3.9419600e-002
 -5.1534900e-002  4.7841300e-002  3.9493100e-002
 -4.8250500e-002  4.8113000e-002  3.9305800e-002
 -4.5502500e-002  4.8484600e-002  3.9393200e-002
 -4.2502300e-002  4.8534500e-002  3.9866400e-002
 -3.9492700e-002  4.8519800e-002  3.9735400e-002
 -3.6345100e-002  4.8323800e-002  3.9555000e-002
 -6.9104100e-002  1.6405100e-001 -1.5881300e-002
 -6.6709300e-002  1.6267700e-001 -1.6194000e-002
 -6.5405000e-002  1.6106500e-001 -1.5951000e-002
 -2.5482400e-002  4.8665700e-002  4.8948500e-002
 -2.2492600e-002  4.8682100e-002  4.9186500e-002
 -1.9494800e-002  4.8640400e-002  4.8556500e-002
 -7.4855500e-003  4.8880700e-002  5.0169600e-002
 -4.4905300e-003  4.8897400e-002  5.0426000e-002
 -1.4938100e-003  4.8907800e-002  5.0725700e-002
  1.5056900e-003  4.8988700e-002  5.1299500e-002
  7.4938600e-003  4.8881400e-002  5.0478500e-002
 -1.0494400e-002  1.2239200e-001  3.4577300e-002
  4.5117100e-002  9.2481000e-002  4.1796300e-003
 -9.0186900e-002  1.1244700e-001  1.6530700e-002
 -5.7431000e-002  1.5560200e-001  1.3280400e-002
 -7.7442800e-002  1.2236200e-001  5.2218700e-002
 -6.4519600e-002  1.4828500e-001  3.8320300e-002
 -6.3206100e-002  1.4904400e-001  3.7348800e-002
 -6.0480400e-002  1.4897900e-001  3.6183700e-002
 -8.9430100e-002  1.4277700e-001  3.0947400e-002
 -7.7492300e-002  1.3167100e-001  5.2684700e-002
 -1.3179700e-003  1.3136700e-001  1.3260200e-002
  4.4276900e-002  9.2208600e-002  2.1492200e-002
  4.3512600e-002  9.8026600e-002  1.6159100e-002
 -4.2867000e-002  1.2888900e-001  4.3282500e-003
 -6.2233800e-002  1.4831500e-001 -4.7676100e-003
 -6.4349400e-002  1.5335900e-001 -5.4028200e-003
 -6.8165200e-002  1.5842900e-001 -6.8403900e-003
 -7.1860600e-002  1.6013800e-001 -7.4355000e-003
 -5.4365000e-002  4.9059400e-002  3.6853100e-002
  3.9819400e-003  1.1277400e-001  4.1329600e-002
 -5.1817600e-002  4.9106700e-002  3.6601700e-002
 -4.9006500e-002  4.9061600e-002  3.7951600e-002
 -3.3752200e-002  4.9302300e-002  3.9633000e-002
 -3.6706000e-002  1.2721900e-001  1.6096000e-002
 -7.1898300e-003  1.0092500e-001  4.5362500e-002
 -4.2378200e-002  1.2868500e-001  1.3451800e-002
 -7.2030900e-002  1.5835000e-001 -4.4469800e-003
 -2.7828800e-002  4.9403500e-002  4.5691300e-002
 -2.4994700e-002  4.9882500e-002  4.6615000e-002
 -2.2497200e-002  4.9888800e-002  4.6659000e-002
 -1.9504400e-002  4.9887200e-002  4.6594100e-002
 -1.7500300e-002  4.9922500e-002  4.7006100e-002
 -1.6233100e-002  5.1125800e-002  4.8371800e-002
 -1.4152000e-002  5.0629400e-002  4.9275200e-002
 -1.2816500e-002  5.1220000e-002  5.0421400e-002
 -1.0496700e-002  5.1021800e-002  5.0934000e-002
 -7.4954900e-003  5.1096500e-002  5.1651600e-002
 -4.7443400e-003  5.0799600e-002  5.2210800e-002
 -1.4960000e-003  5.0527000e-002  5.2843400e-002
  1.5035500e-003  5.0810300e-002  5.2467400e-002
  4.5040600e-003  5.0465400e-002  5.2372400e-002
  7.4968300e-003  5.1108000e-002  5.1703500e-002
  1.0364900e-002  5.1635200e-002  5.0821900e-002
 -6.2429900e-002  1.4831900e-001 -1.0573100e-002
 -9.0789500e-002  1.2200700e-001  6.2850800e-003
 -2.7124800e-002  9.1726000e-002 -3.0607700e-002
 -7.0351200e-002  1.7083600e-001 -5.2033900e-002
 -7.4491800e-002  1.2814400e-001  5.2727100e-002
 -6.0629500e-002  1.4250100e-001 -4.5521300e-003
 -9.4571600e-002  1.2214500e-001  1.9277300e-002
  3.3671900e-002  1.1325600e-001 -1.5867800e-003
 -5.2569900e-002  1.3915200e-001  2.5207800e-002
 -7.2438700e-003  1.2138900e-001  3.6131200e-002
 -1.2398500e-002  1.2969800e-001  1.2802500e-002
 -6.1638300e-002  1.5530600e-001 -2.4583000e-002
 -8.5474700e-002  1.0700800e-001  2.1350200e-002
 -8.9546900e-002  1.3997700e-001  3.1182500e-002
 -2.7726000e-002  1.2438800e-001  1.9227900e-002
 -2.8126600e-002  1.2525500e-001  4.2551800e-003
  3.3558400e-002  4.8746800e-002  3.1576000e-002
  3.6496300e-002  4.9129700e-002  3.1558700e-002
  3.9292700e-002  4.9039500e-002  3.2147100e-002
  4.2794700e-002  4.8766400e-002  3.1860000e-002
 -3.9691300e-002  1.1584900e-001  3.3144400e-002
 -8.8147100e-002  1.2192700e-001  3.0181700e-004
 -6.3912300e-002  1.5505700e-001 -3.9568400e-002
 -6.9783800e-002  1.2256800e-001  5.3181900e-002
  2.8179600e-002  1.0169600e-001  4.0034000e-002
 -8.7541700e-002  1.1894300e-001  5.9199400e-004
 -2.7768100e-002  1.8116700e-001 -1.3091200e-002
 -4.5823000e-002  1.6833500e-001  1.1077800e-003
 -6.2999800e-002  1.5142600e-001 -7.5630100e-003
 -7.4743400e-002  9.5234300e-002  3.9339600e-002
  1.6126800e-002  1.2852400e-001  1.9075800e-002
 -1.5705300e-002  9.7967500e-002  4.8127100e-002
 -8.8618000e-003  1.2986500e-001  2.0846200e-002
 -3.9583500e-002  1.2523500e-001  2.2165700e-002
 -5.1174800e-002  5.0796400e-002  3.3822100e-002
 -5.0445700e-002  5.0417700e-002  3.5947600e-002
 -4.8481000e-002  5.1074100e-002  3.6861500e-002
 -4.6517800e-002  5.1193900e-002  3.7974800e-002
 -4.5007800e-002  5.1250600e-002  3.8622900e-002
 -4.2511900e-002  5.1310000e-002  3.9309100e-002
 -3.9491500e-002  5.1309400e-002  3.9337400e-002
 -3.6484100e-002  5.1259400e-002  3.8756100e-002
 -3.3496200e-002  5.0576600e-002  3.8333800e-002
  3.3325700e-002  1.1555600e-001  2.2021900e-002
 -2.7172600e-002  5.1059000e-002  4.2117500e-002
 -2.4804900e-002  5.1364800e-002  4.2657100e-002
 -2.2944300e-002  5.1678600e-002  4.3389500e-002
 -2.1453300e-002  5.1815300e-002  4.4782200e-002
 -2.0166600e-002  5.1710900e-002  4.5983100e-002
 -1.8799800e-002  5.2342600e-002  4.7544400e-002
 -4.0040800e-003  5.1955800e-002  5.3360800e-002
 -1.4982200e-003  5.2026200e-002  5.4073300e-002
  1.5024800e-003  5.1958300e-002  5.3225900e-002
  4.5004100e-003  5.1957100e-002  5.3197600e-002
  4.2702200e-002  9.5122700e-002 -1.8044900e-003
  4.4556200e-002  9.2459900e-002  1.9160300e-002
 -7.7314400e-002  1.2514400e-001  5.2601900e-002
 -8.3862000e-002  1.1307600e-001  4.5867800e-002
 -9.1527600e-002  1.1685500e-001  7.9784600e-003
 -7.2746000e-002  1.3356800e-001  5.0533800e-002
 -7.4641600e-002  1.3362200e-001  5.1385800e-002
 -7.7492900e-002  1.3376800e-001  5.1814900e-002
 -9.2295900e-002  1.1666300e-001  1.0312300e-002
 -4.4888400e-003  1.2171300e-001  3.6297600e-002
  1.6129300e-002  1.2878800e-001  1.6218500e-002
  4.0498300e-002  4.9940400e-002  3.2474100e-002
  4.2005700e-002  4.9934800e-002  3.2473300e-002
 -6.9352300e-002  1.1664800e-001  5.1933700e-002
  2.1985300e-002  1.2527700e-001  2.2049600e-002
  2.2009700e-002  1.2574300e-001  1.9027400e-002
  3.9522900e-002  1.0785500e-001  1.0101300e-002
 -1.5985100e-002  1.6044900e-001 -1.0195300e-002
 -7.7411100e-002  1.4795300e-001 -4.8710500e-003
 -8.6707200e-002  1.2187200e-001 -1.7143800e-003
 -6.5601000e-002  1.5453600e-001 -4.4162100e-003
  1.3037000e-002  1.2716100e-001  2.7846500e-002
 -1.5804100e-002  1.2615000e-001  2.5681500e-002
 -4.2478800e-002  1.7106300e-001 -1.1678100e-003
 -7.1903100e-002  1.5582400e-001  2.5355000e-002
 -3.9971000e-002  1.2318100e-001  2.5915200e-002
  1.5453500e-002  1.2411600e-001  3.0163100e-002
 -3.3479100e-002  5.1883100e-002  3.7719100e-002
 -3.0656900e-002  5.2145300e-002  3.7283800e-002
 -6.4210800e-002  1.5981200e-001 -1.6472500e-002
 -3.6596800e-002  1.2174200e-001  2.8049700e-002
 -3.3662400e-002  1.1895500e-001  3.0271900e-002
 -2.5769800e-002  5.2249900e-002  3.9945000e-002
 -1.7135900e-002  5.3482300e-002  4.9570200e-002
 -1.6215600e-002  5.4683400e-002  5.0452800e-002
 -1.3480500e-002  5.3828300e-002  5.0795200e-002
 -1.0494800e-002  5.3937200e-002  5.2029300e-002
 -8.1623000e-003  5.3766000e-002  5.2649000e-002
 -6.8324500e-003  5.4277800e-002  5.3179200e-002
 -4.4971200e-003  5.4119400e-002  5.3914200e-002
 -1.4947000e-003  5.4198600e-002  5.4707500e-002
  1.5121400e-003  5.4112200e-002  5.3847300e-002
  4.5029800e-003  5.4073000e-002  5.3436200e-002
  7.4995500e-003  5.3988100e-002  5.2521900e-002
  1.0550600e-002  5.4166800e-002  5.2079800e-002
 -1.3692300e-002  1.2179800e-001  3.4108100e-002
 -6.3133200e-002  1.7213400e-001 -5.1381200e-002
 -5.7226400e-002  1.1578200e-001  3.6851700e-002
  4.7317200e-003  1.1380300e-001  4.0790900e-002
 -4.2501500e-002  1.1595500e-001  3.3060500e-002
 -7.9503900e-002  1.2814900e-001  5.3141200e-002
  3.7208300e-002  9.5606100e-002 -1.0554200e-002
 -2.5875100e-002  1.8110600e-001 -1.6272700e-002
 -6.3261000e-002  1.6358600e-001 -2.7642000e-002
 -8.0830900e-002  1.3360100e-001  5.1046200e-002
 -1.4377400e-003  1.3135000e-001  1.0349000e-002
 -8.0569700e-002  1.4227100e-001  4.4864800e-002
  2.8852700e-002  1.2012800e-001  2.2710000e-002
 -3.0884500e-002  1.2612000e-001  1.0212000e-002
  3.4592300e-002  5.1635600e-002  3.2249400e-002
  3.6515300e-002  5.1991400e-002  3.1674600e-002
  3.9289800e-002  5.2188500e-002  3.2082500e-002
  4.0494900e-002  5.1376700e-002  3.2465900e-002
  4.2504000e-002  5.2083600e-002  3.2560000e-002
 -8.4135900e-002  1.4915100e-001  3.3769300e-002
 -6.5567200e-002  1.4968600e-001  3.7973800e-002
  3.4512300e-002  1.0175800e-001  3.4284300e-002
  3.0749400e-002  1.1343700e-001  3.0564700e-002
  4.2642600e-002  1.0148500e-001  7.1665800e-003
 -3.0772700e-002  1.2488600e-001  1.9232000e-002
 -3.0490500e-002  1.1692100e-001  3.1925700e-002
 -4.5500200e-002  1.3091700e-001  1.9077100e-002
  1.4197500e-002  1.2583600e-001  2.9202300e-002
  1.3289000e-002  1.2491800e-001  3.0935400e-002
 -7.1932400e-002  1.5145600e-001  3.6593800e-002
 -6.0257100e-002  1.5386900e-001  3.0703000e-002
 -7.2173700e-002  1.5565300e-001  6.9050500e-003
 -7.1955000e-002  1.5617200e-001  1.2949500e-002
 -4.8125600e-002  5.3662500e-002  3.6219100e-002
 -4.6089100e-002  5.3816300e-002  3.7848900e-002
 -4.4686000e-002  5.4257100e-002  3.8682200e-002
 -4.2506600e-002  5.4132700e-002  3.9416400e-002
 -3.9490300e-002  5.4127800e-002  3.9454300e-002
 -3.6482900e-002  5.4069900e-002  3.8784400e-002
 -3.3480000e-002  5.3970700e-002  3.7650300e-002
 -3.0688700e-002  5.4031200e-002  3.6722700e-002
 -6.0381600e-002  1.5560500e-001  3.7690200e-003
 -8.8548300e-002  1.2466100e-001  1.7807700e-003
 -6.9145200e-002  1.5529000e-001  2.8028900e-002
 -2.5496400e-002  5.4336100e-002  3.9625800e-002
 -2.3072700e-002  5.4504500e-002  4.3111200e-002
 -2.1510900e-002  5.5058500e-002  4.5465100e-002
 -2.0414000e-002  5.4128900e-002  4.6538900e-002
 -1.8933100e-002  5.5048700e-002  4.8431900e-002
 -8.0726100e-002  1.2533800e-001  5.2180000e-002
 -7.8509200e-002  1.2600300e-001  5.2955500e-002
 -4.5501300e-002  1.1525100e-001  3.3346900e-002
 -3.4093800e-002  1.7587200e-001 -3.6908800e-003
 -8.1382700e-002  1.2805100e-001  5.2473800e-002
 -3.6745300e-002  1.7519300e-001 -4.3392200e-003
 -6.2049800e-002  1.5453400e-001 -1.6584000e-002
 -9.6089100e-003  1.7800400e-001 -2.7766600e-002
  3.6495200e-002  8.9365500e-002 -1.5632900e-002
  4.4205400e-002  9.7360600e-002  1.0161700e-002
  3.8683500e-002  1.0691700e-001  1.1746700e-003
 -8.9443900e-002  9.9003200e-002  1.3406100e-002
  1.9904000e-003  1.1417200e-001  4.1091200e-002
  4.4480700e-002  5.2648900e-002  3.2459200e-002
  1.6746200e-002  1.1365300e-001  3.7644700e-002
  2.5693500e-002  1.2262900e-001  2.2291000e-002
 -8.7663600e-002  1.0172400e-001  7.2060300e-003
 -7.4817300e-002  1.6196100e-001 -1.3186200e-002
 -1.8941000e-002  1.2765700e-001  7.3327300e-003
 -7.2408300e-002  1.4756100e-001  4.1758100e-002
 -6.6279600e-002  1.5519600e-001  2.8207000e-002
 -6.9045800e-002  1.5333700e-001  3.3404500e-002
 -7.2113200e-003  1.2987200e-001  2.2312200e-002
 -6.2985900e-002  1.5575400e-001  1.0486000e-002
 -6.6425900e-002  1.5123200e-001  3.6841100e-002
 -7.4920300e-002  1.5512700e-001  4.6177100e-003
 -1.6200700e-002  1.2839400e-001  7.3208500e-003
 -5.7351500e-002  1.5382200e-001  2.7976700e-002
 -2.5183700e-002  1.2501300e-001  1.2594400e-003
 -2.7791300e-002  5.4184700e-002  3.6983000e-002
 -1.0480500e-002  1.2909000e-001  2.2444100e-002
 -2.7889300e-002  1.2536900e-001  1.6220500e-002
 -7.8043600e-002  1.5566300e-001  1.9424800e-002
 -7.8836000e-002  1.6905400e-001 -3.9526700e-002
 -7.7614800e-002  9.8307500e-002 -1.0489000e-002
 -1.3300000e-002  1.2866800e-001  4.1916300e-003
 -1.4229900e-003  1.3113100e-001  7.4406200e-003
  1.5804200e-003  1.3159100e-001  1.0557000e-002
  1.3218800e-002  1.3004100e-001  1.3353600e-002
 -1.6367000e-002  5.7593200e-002  5.1186500e-002
 -1.3426700e-002  5.7304600e-002  5.1888700e-002
 -1.1009700e-002  5.6060000e-002  5.2541100e-002
 -1.0244700e-002  5.7196000e-002  5.3294600e-002
 -7.4999600e-003  5.6899500e-002  5.3904900e-002
 -4.4983100e-003  5.6897900e-002  5.3953000e-002
 -1.5062000e-003  5.6941600e-002  5.4396300e-002
  1.5071400e-003  5.6931600e-002  5.4246000e-002
  4.5092300e-003  5.6851600e-002  5.3492400e-002
  7.2600700e-003  5.7161700e-002  5.3096100e-002
  8.0032100e-003  5.6101400e-002  5.2824300e-002
  1.0310300e-002  5.6842200e-002  5.2641700e-002
  4.5016200e-003  1.2241400e-001  3.4881000e-002
  1.4356200e-003  1.2287900e-001  3.4746000e-002
  4.0738500e-002  8.3841500e-002 -1.0573500e-002
  1.0301200e-002  1.3088000e-001  1.6139700e-002
 -7.5657700e-002  1.1328700e-001 -5.6818000e-003
 -3.3709200e-002  1.1334100e-001  3.4492800e-002
 -5.4910600e-002  1.5391000e-001  1.9049200e-002
  4.1433900e-003  1.2841800e-001  2.7722200e-002
 -4.3541900e-003  1.3103900e-001  1.3245800e-002
  7.2155300e-003  1.3114600e-001  1.8759300e-002
 -2.8099400e-002  1.2561800e-001  7.3317800e-003
  3.6802400e-002  5.4356900e-002  3.1688400e-002
  3.9501400e-002  5.4836500e-002  3.1729300e-002
  4.2243200e-002  5.5233700e-002  3.2165500e-002
  4.2997500e-002  5.4198500e-002  3.2433700e-002
  4.5024200e-002  5.4130500e-002  3.2432400e-002
 -7.7481300e-002  1.3933100e-001  4.8491600e-002
 -2.7986500e-002  9.2480500e-002 -2.7588700e-002
 -3.0707100e-002  1.1964700e-001 -1.0293200e-002
 -4.7417400e-002  1.5790500e-001  8.6791700e-003
 -2.0455100e-002  8.7998400e-002  5.5462700e-002
  1.9641900e-002  1.2616400e-001  2.2135800e-002
  3.9235400e-002  1.0193400e-001 -4.7645400e-003
  2.8648600e-002  1.1706000e-001  2.8824300e-002
 -7.5181600e-002  1.5982700e-001 -1.0155600e-002
 -6.6055500e-002  1.5629200e-001  1.9543500e-002
 -7.4782600e-002  1.5395600e-001  3.0875500e-002
 -6.0452700e-002  1.5582200e-001  1.0149000e-002
 -1.0026200e-002  1.2841300e-001  2.5086000e-002
  2.8083100e-002  1.1406900e-001 -8.1079600e-003
 -3.6996100e-002  1.2774300e-001  1.3201900e-002
 -4.4822500e-002  5.7429700e-002  3.8943900e-002
 -4.2508200e-002  5.6983100e-002  3.9851200e-002
 -3.9496200e-002  5.6997600e-002  4.0042900e-002
 -3.6490300e-002  5.6936000e-002  3.9353600e-002
 -3.4151400e-002  5.7083000e-002  3.8409300e-002
 -3.2828700e-002  5.6562300e-002  3.7748200e-002
 -3.0351400e-002  5.7014200e-002  3.6883500e-002
 -2.7818300e-002  5.7106100e-002  3.7012900e-002
 -2.4860800e-002  1.2291300e-001  2.4542900e-002
  1.5992100e-002  1.2718800e-001  2.4843600e-002
 -8.1105600e-002  1.5466400e-001  2.2193200e-002
 -9.4216200e-002  1.2692500e-001  2.1759000e-002
 -1.0701600e-002  1.2917700e-001  3.5657600e-003
  1.9125900e-002  1.2747200e-001  1.5898400e-002
 -3.7162800e-002  1.7556800e-001 -7.6009400e-003
 -3.0256000e-002  1.1561600e-001  3.3250200e-002
 -1.9357500e-002  1.2200900e-001  3.0673700e-002
 -1.7033000e-002  1.2257600e-001  3.1017300e-002
 -6.8290700e-002  1.6308100e-001 -5.3975100e-002
 -2.5240800e-002  1.2570800e-001  1.6145500e-002
 -3.6492600e-002  1.1319500e-001  3.4463600e-002
 -6.3706500e-002  1.5725600e-001 -1.3521800e-002
 -1.8999600e-002  1.2089300e-001  3.2599100e-002
  3.9850600e-002  1.0504200e-001  9.6254500e-004
 -5.1737300e-002  1.4857300e-001  1.6404400e-002
  2.5914500e-002  1.0209900e-001  4.1147900e-002
 -1.6248000e-002  1.2128700e-001  3.3363900e-002
 -6.1516500e-002  1.5114000e-001  3.5551200e-002
  4.0785400e-002  1.0563700e-001  1.0163600e-002
 -9.2414800e-002  1.2488100e-001  3.1264500e-002
  4.5776900e-002  5.5153900e-002  3.2181900e-002
 -7.7853900e-002  6.8982400e-002  1.3348300e-002
 -7.4880600e-002  1.6655800e-001 -2.2103100e-002
 -3.9729500e-002  1.2804500e-001  1.5757800e-003
 -9.6428300e-003  1.7494200e-001 -2.4770800e-002
 -2.2029800e-002  1.8425700e-001 -1.2710900e-002
 -7.0825500e-003  9.9778200e-002  4.9058900e-002
 -7.5146500e-002  8.6738500e-002  3.9281300e-002
 -5.4117800e-002  5.4577800e-002  1.0629000e-002
 -7.3178800e-003  1.2559800e-001  3.1138200e-002
 -6.6250500e-002  1.5624400e-001  2.2232700e-002
 -1.3817400e-003  9.9869700e-002  4.9078900e-002
 -6.0069300e-002  1.5171600e-001  3.4239800e-002
 -1.9296500e-002  1.2717000e-001  4.4333600e-003
 -2.2144700e-002  1.2707900e-001  1.3150000e-002
 -8.1042000e-002  1.5415300e-001  2.5186500e-002
 -2.2060500e-002  1.2496400e-001 -1.1790300e-003
 -2.5016800e-002  1.2415200e-001 -1.8528500e-003
 -3.1203500e-002  1.7779600e-001 -1.3352100e-002
 -1.0005900e-002  1.2958900e-001  5.0267000e-003
  1.0284200e-002  1.3099800e-001  1.3052700e-002
 -1.3504400e-002  6.0502000e-002  5.3591600e-002
 -1.0496900e-002  5.9753600e-002  5.4640000e-002
 -7.4994500e-003  5.9804200e-002  5.5330200e-002
 -4.4968200e-003  5.9762200e-002  5.4777900e-002
 -1.6867200e-003  5.9659100e-002  5.4937200e-002
  1.5016300e-003  5.9100700e-002  5.5054600e-002
  4.7031700e-003  5.9640500e-002  5.5072400e-002
  7.7219200e-003  6.0005700e-002  5.4032400e-002
  1.0858500e-002  6.0137600e-002  5.2335200e-002
 -1.2488100e-002  1.2099800e-001  3.5492900e-002
 -5.1595400e-002  1.1597600e-001  3.3601100e-002
  7.4992400e-003  1.2240700e-001  3.5071600e-002
  3.2932700e-002  1.1508100e-001  2.4724100e-002
 -3.9758500e-002  1.2814700e-001  1.3358900e-002
 -6.5608000e-002  1.5564800e-001  2.6105600e-002
  4.4450200e-003  1.3157300e-001  1.6466300e-002
  3.9530200e-002  5.7602600e-002  3.1102500e-002
  4.2492100e-002  5.7660900e-002  3.1589000e-002
  4.5512500e-002  5.7661900e-002  3.1981700e-002
  4.8425100e-002  5.7509100e-002  3.1193100e-002
  4.4556700e-002  9.5274700e-002  1.3161600e-002
  4.4553700e-002  9.5115800e-002  4.3801900e-003
 -8.0241500e-002  1.2253600e-001  5.0711800e-002
 -8.6182400e-002  1.1018800e-001  7.2177300e-003
 -7.2354900e-002  1.4508100e-001 -1.5727700e-002
 -6.1968000e-002  1.5435500e-001 -2.7785100e-002
 -8.0622800e-002  9.6042200e-002  3.3885200e-002
 -7.7807400e-002  9.2734000e-002  3.6833300e-002
 -2.8365600e-002  1.1990800e-001  2.8677600e-002
 -5.4046900e-002  1.5140100e-001  2.5271200e-002
 -7.1770700e-002  1.5351900e-001  3.2838700e-002
 -7.0109700e-002  1.5601200e-001  1.2210200e-003
 -2.2337200e-002  1.2574200e-001  1.7547300e-003
 -7.8204300e-002  1.5494500e-001  2.5249100e-002
 -4.2814900e-002  6.0088000e-002  4.0173200e-002
 -3.9497100e-002  5.9868900e-002  4.0711900e-002
 -3.6494500e-002  5.9828500e-002  4.0207900e-002
 -3.3487900e-002  5.9702300e-002  3.8844800e-002
 -3.0505200e-002  6.0304900e-002  3.7660000e-002
 -2.7897300e-002  6.0562100e-002  3.7392300e-002
 -2.6581500e-002  5.9497200e-002  3.8409200e-002
 -8.0625900e-002  9.8304600e-002 -7.3855000e-003
  2.2228200e-002  1.2583900e-001  1.5723000e-002
  2.9076100e-002  1.2031600e-001  1.9704300e-002
 -1.6630200e-002  6.0781300e-002  5.2107000e-002
 -1.4244000e-002  5.9990600e-002  5.2767400e-002
 -4.9229800e-004  6.0589900e-002  5.6041300e-002
  1.5044400e-003  6.0584200e-002  5.6051900e-002
  3.4988300e-003  6.0572800e-002  5.5934200e-002
  1.0667000e-002  1.1909000e-001  3.6409600e-002
 -1.6292200e-002  1.1875900e-001  3.5916100e-002
  1.4962500e-003  1.1967100e-001  3.7796100e-002
 -9.4253100e-002  1.2011500e-001  1.9288100e-002
 -2.5456300e-002  1.2060100e-001  2.8847200e-002
 -2.5124200e-002  1.2126200e-001  2.7908500e-002
 -2.2492500e-002  1.2078100e-001  3.0640300e-002
 -3.9488300e-002  1.1391600e-001  3.4577300e-002
 -2.2179400e-002  1.2237700e-001  2.7948300e-002
 -7.4997600e-002  1.4281600e-001  4.6125300e-002
 -5.3960300e-002  1.4544800e-001  2.5404000e-002
 -8.0582900e-002  1.5511400e-001  1.6212400e-002
  1.3303000e-002  1.2994100e-001  1.6232400e-002
 -6.2213800e-002  1.5432300e-001 -3.0778200e-002
 -4.5628700e-002  1.2566900e-001 -7.8402700e-003
  4.1977100e-002  1.0126100e-001  1.3080200e-003
 -6.8972600e-002  1.3626200e-001 -8.1949000e-003
 -8.4304300e-002  1.1345800e-001  1.0729100e-003
 -2.3123500e-002  1.5954600e-001 -2.4510900e-003
 -8.6201200e-002  1.3978600e-001  4.1932300e-003
 -6.4015600e-002  1.7160900e-001 -4.8350800e-002
 -7.4326000e-002  1.5613400e-001  1.3810500e-002
 -8.0913300e-002  1.1138300e-001  4.4834100e-002
 -6.2591700e-002  1.5130200e-001 -2.4677800e-002
 -7.2150000e-002  1.6602600e-001 -1.8875100e-002
 -5.7500000e-002  5.8826900e-002  2.1260200e-002
 -3.5809900e-002  1.2305700e-001  2.5934500e-002
 -1.0123200e-002  1.2979500e-001  1.8941300e-002
  2.2332500e-002  1.1989100e-001  3.1867300e-002
 -8.1274400e-002  1.5417200e-001  1.0132600e-002
 -7.2343200e-003  1.2775900e-001  2.7983700e-002
 -7.8054900e-002  1.5539600e-001  2.2346500e-002
 -5.0801400e-002  1.3387000e-001  2.8674700e-002
 -7.3809200e-003  1.2999000e-001  4.6524400e-003
  7.5139800e-003  1.3147100e-001  1.0307700e-002
  1.6289500e-002  1.2883100e-001  1.3527900e-002
  2.7616600e-002  1.2164600e-001  1.9159800e-002
  3.3370300e-002  1.1593200e-001  1.9191800e-002
 -7.5073700e-003  1.2904000e-001  2.5118100e-002
 -1.5464200e-002  6.1722800e-002  5.3131300e-002
 -1.3347900e-002  6.3292600e-002  5.4220200e-002
 -1.0496000e-002  6.3301000e-002  5.5428900e-002
 -7.5024100e-003  6.2659500e-002  5.6129600e-002
 -4.7466100e-003  6.3015400e-002  5.6161600e-002
 -3.9954100e-003  6.1952100e-002  5.5728500e-002
 -1.4981100e-003  6.2698500e-002  5.6481100e-002
  1.5025800e-003  6.2711400e-002  5.6683900e-002
  4.5162800e-003  6.2679800e-002  5.6313700e-002
  7.2586700e-003  6.3569600e-002  5.5477200e-002
 -1.3502200e-002  1.1896600e-001  3.6944600e-002
 -1.4963600e-003  1.1969100e-001  3.8096100e-002
 -4.4894400e-003  1.1967500e-001  3.7873500e-002
 -7.7446400e-003  1.1933800e-001  3.7720100e-002
 -6.5914300e-002  1.2164700e-001 -8.9060300e-003
 -3.9824500e-002  9.2155200e-002 -2.3297900e-002
 -9.4486300e-002  1.2215700e-001  2.2282900e-002
 -1.0488000e-002  1.2100800e-001  3.5984300e-002
 -9.3855000e-002  1.1931100e-001  2.2498700e-002
 -9.4211300e-002  1.2012300e-001  2.1292500e-002
 -5.2288100e-002  5.6355300e-002  1.9313500e-002
 -6.2660700e-002  1.5163300e-001 -1.0398100e-002
  4.3875700e-002  9.5585300e-002  1.9409700e-002
 -8.8498200e-002  9.8496700e-002  2.1940000e-002
  3.7151200e-002  1.0754700e-001 -1.8297400e-003
 -3.3849000e-002  9.7920400e-002 -2.2934100e-002
  4.1753100e-002  9.7784900e-002  2.4962000e-002
  4.0076200e-002  9.8417300e-002  2.7984800e-002
  3.9738900e-002  6.0524500e-002  3.0705000e-002
  4.2507200e-002  6.0372500e-002  3.0227500e-002
  4.5497200e-002  6.0428400e-002  3.1003800e-002
  4.8515200e-002  6.0406100e-002  3.0841600e-002
  5.1285600e-002  6.0345800e-002  2.9890800e-002
  4.0708500e-002  9.5694900e-002 -5.8076800e-003
  4.0517800e-002  8.9671000e-002 -1.0315200e-002
 -2.4574100e-002  9.2108000e-002 -3.3189000e-002
  1.5999000e-002  1.1262000e-001  3.8394700e-002
 -7.5820000e-002  1.5585700e-001  1.3046000e-002
 -5.7808000e-002  5.9641000e-002  2.2141200e-002
 -5.7618200e-002  6.1182900e-002  2.5413600e-002
 -5.3815800e-002  6.0753300e-002  2.7364600e-002
 -2.1903100e-002  1.2662800e-001  5.2291800e-003
 -4.8285500e-002  1.3630900e-001  1.6459000e-002
  1.5521100e-003  9.8115300e-002  5.1379300e-002
  1.5965800e-002  1.2132600e-001  3.3048800e-002
  2.5761400e-002  1.2315900e-001  1.9176300e-002
 -4.3080700e-002  6.2867400e-002  4.0566100e-002
 -3.9496500e-002  6.2749400e-002  4.1394500e-002
 -3.7161500e-002  6.2966500e-002  4.1270000e-002
 -3.5827600e-002  6.2458100e-002  4.0802100e-002
 -3.3364600e-002  6.2881900e-002  3.9443400e-002
 -3.1495000e-002  6.1765000e-002  3.8260300e-002
 -2.6785100e-002  6.3567500e-002  3.8895500e-002
  1.3414100e-003  1.3139500e-001  7.6048700e-003
 -1.7011600e-002  6.3254700e-002  5.2314500e-002
 -1.5823400e-002  6.4041900e-002  5.3294900e-002
  1.3296800e-002  1.1875200e-001  3.5871200e-002
 -1.0490000e-002  1.1896400e-001  3.7595100e-002
 -8.7469900e-002  1.5123800e-001  2.5041900e-002
 -7.5007300e-002  1.3934200e-001  4.8461100e-002
  4.4377100e-002  9.5117000e-002  1.5956700e-002
 -6.1579400e-002  1.5763700e-001 -3.0588900e-002
 -6.2601600e-002  1.4507100e-001 -7.3943000e-003
  1.2215600e-003  1.2129300e-001  3.6375600e-002
 -7.9998000e-002  1.3916700e-001  4.7915000e-002
 -1.3307700e-002  1.2430600e-001  3.0983200e-002
 -1.5587700e-002  1.2376000e-001  3.0458200e-002
  4.3689200e-002  9.5333500e-002  9.8899900e-004
 -4.0572300e-003  1.2715700e-001  2.9861000e-002
  3.6134800e-002  1.0734000e-001 -4.6251700e-003
 -2.0913600e-002  1.8607600e-001 -1.5378500e-002
  2.1894800e-002  1.1308800e-001  3.6270000e-002
 -4.2958000e-002  1.2844900e-001  1.3910300e-003
 -6.5979700e-002  1.5440900e-001  1.7413100e-003
  1.4175200e-002  1.2925300e-001  1.9883100e-002
 -3.7118800e-002  1.6295600e-001 -1.3557400e-002
 -4.3061400e-002  1.5397400e-001 -7.7393600e-003
 -5.7635400e-002  6.2282900e-002  2.8096800e-002
 -5.5501300e-002  6.2375400e-002  2.9378200e-002
 -5.4358600e-002  6.2954200e-002  3.0931900e-002
 -5.2043300e-002  6.2646700e-002  3.1820200e-002
 -5.1110200e-002  6.3676900e-002  3.3979700e-002
 -6.8777600e-002  1.5550800e-001  1.4177300e-003
  1.8951000e-003  1.2595800e-001  3.1631800e-002
 -1.8339600e-002  1.2660500e-001  2.1835000e-002
 -4.1481200e-002  6.3446700e-002  4.1246800e-002
 -3.1162100e-002  6.4133500e-002  3.8558500e-002
 -2.9829500e-002  6.3609400e-002  3.7981000e-002
 -2.8167300e-002  6.3603000e-002  3.7889000e-002
  2.4622300e-002  1.2426700e-001  1.6614300e-002
 -4.6468200e-002  1.3319900e-001  1.1081000e-002
 -7.1034500e-003  6.5573500e-002  5.6052500e-002
 -4.5014400e-003  6.6156000e-002  5.6368300e-002
 -1.4991600e-003  6.6179700e-002  5.6668700e-002
  1.5063900e-003  6.6160900e-002  5.6369600e-002
  4.1788100e-003  6.5685700e-002  5.6215200e-002
 -7.6631700e-002  1.5444200e-001 -4.6308400e-003
 -7.3721400e-002  1.5443000e-001 -2.7653000e-002
 -8.4688800e-002  9.8817200e-002 -1.7864300e-003
 -7.7978500e-002  1.7534400e-001 -4.8263400e-002
  1.5309500e-003  1.3154200e-001  1.6211800e-002
 -1.7501500e-002  1.1955900e-001  3.4848500e-002
  4.6932900e-003  1.1908300e-001  3.7416100e-002
  7.4973300e-003  1.1894900e-001  3.7234300e-002
 -2.0511500e-002  1.1406600e-001  3.7961700e-002
 -1.9206400e-002  1.8664300e-001 -1.8928000e-002
  4.1937500e-002  8.3799200e-002 -7.7808500e-003
 -4.5648900e-002  1.2123200e-001  2.7409700e-002
 -9.2052100e-002  1.1612000e-001  3.6311400e-002
 -1.0196400e-002  1.2537100e-001  3.0567700e-002
 -5.1685900e-002  1.2209500e-001 -1.0615300e-002
  1.8948600e-002  1.0742600e-001 -1.6800700e-002
 -9.4089800e-002  1.2211600e-001  1.5278700e-002
  4.0341200e-002  6.3516400e-002  3.0427100e-002
  4.2419500e-002  6.3369200e-002  2.8511100e-002
  4.5487800e-002  6.2459000e-002  2.9747900e-002
  4.8509900e-002  6.2470700e-002  3.0043100e-002
  5.1037500e-002  6.2429400e-002  2.9607900e-002
  3.6324800e-002  1.1000800e-001  2.5095100e-002
 -4.8245500e-002  1.6625900e-001 -4.4233400e-003
 -4.8104400e-002  1.3352600e-001  4.3242600e-003
 -9.2717600e-002  1.1936800e-001  1.0298900e-002
 -8.6524900e-002  9.6085300e-002  1.4318500e-003
 -7.7996700e-002  1.6351800e-001 -2.4864600e-002
  1.4475800e-003  1.3115800e-001  1.9048800e-002
 -4.2370700e-002  1.2769400e-001 -1.6233800e-003
 -1.4317600e-003  1.2986700e-001  2.4401500e-002
 -2.4606500e-002  7.4513400e-002  4.8693900e-002
 -5.9884000e-002  1.0474700e-001 -1.8193200e-002
 -7.4417800e-002  1.1290500e-001 -6.8320400e-003
 -6.2816500e-002  9.0320400e-002 -1.8970300e-002
 -3.1387000e-002  8.9549900e-002 -2.5139500e-002
 -5.3980900e-002  6.4156600e-002  3.3075800e-002
 -4.8275600e-002  6.3806400e-002  3.6579300e-002
 -2.2008600e-002  1.2707400e-001  1.0281400e-002
 -2.1431900e-002  1.2397400e-001  2.4435100e-002
 -4.5854900e-003  1.2919800e-001  2.5776500e-002
 -4.3090400e-002  6.5932600e-002  4.0857500e-002
 -4.1827400e-002  6.6254100e-002  4.1333500e-002
 -3.9495700e-002  6.5580600e-002  4.1676900e-002
 -3.6995800e-002  6.5569500e-002  4.1558300e-002
 -3.5499600e-002  6.5530900e-002  4.1103100e-002
 -3.3628000e-002  6.6345100e-002  4.0355000e-002
  4.5499900e-002  6.8308000e-002  2.5034300e-002
 -1.6359100e-002  6.6734300e-002  5.3752300e-002
 -1.3202100e-002  6.6492900e-002  5.4062400e-002
 -1.0499600e-002  6.6740400e-002  5.5061000e-002
 -7.9961000e-003  6.6800500e-002  5.5741600e-002
  5.1827900e-003  6.7027900e-002  5.5733200e-002
  7.5105600e-003  6.6753200e-002  5.5203200e-002
  1.0500800e-002  6.6568500e-002  5.4206900e-002
  1.6000400e-002  1.1817500e-001  3.5630200e-002
  1.6596300e-002  1.1966000e-001  3.4451900e-002
  1.9275900e-002  1.1854600e-001  3.4615600e-002
 -3.9509000e-002  1.2736700e-001 -1.3750500e-003
 -2.4034400e-002  1.1809700e-001  3.2842400e-002
 -1.9705400e-002  1.1898600e-001  3.4404400e-002
 -2.2548300e-002  1.1952500e-001  3.2163700e-002
 -2.1856000e-002  1.1859500e-001  3.3646000e-002
 -4.7579600e-002  1.2157600e-001  2.8385200e-002
  1.3085500e-002  1.2977000e-001  1.9052600e-002
 -4.8730100e-002  1.2279600e-001 -1.0797200e-002
  4.3606900e-002  9.8022200e-002  4.1736200e-003
  4.5489100e-002  6.3791200e-002  2.8817200e-002
  4.8502900e-002  6.3811000e-002  2.9329400e-002
  5.1861800e-002  6.3165300e-002  2.8971900e-002
 -6.8960600e-002  1.5633900e-001  1.8855500e-002
 -2.1112400e-002  1.8296500e-001 -2.1013200e-002
  3.7935900e-002  1.0830200e-001  1.1697700e-003
  3.9233200e-002  1.0762200e-001  4.3653900e-003
 -6.0341000e-002  7.1889900e-002  3.9392200e-002
 -6.1542600e-002  1.5764300e-001 -2.7587800e-002
  1.3272800e-002  1.2897500e-001  2.2549700e-002
 -6.1220400e-002  1.5599000e-001  1.9665400e-002
 -6.5616000e-002  9.0118300e-002 -1.8299300e-002
 -7.2152600e-002  1.1322000e-001 -8.2181100e-003
 -3.7159700e-002  1.6593700e-001 -1.3685100e-002
 -4.5876300e-002  1.5377300e-001 -6.7874500e-003
 -5.4813500e-002  8.9123200e-002 -2.2091500e-002
 -4.2824400e-002  8.9179400e-002 -2.2175000e-002
 -5.1644800e-002  6.6251200e-002  3.6225100e-002
 -4.8809100e-002  6.6012700e-002  3.7395900e-002
 -4.5139000e-002  1.3125900e-001  9.8835800e-003
  4.2506400e-003  1.2689100e-001  2.9959200e-002
 -4.5363000e-002  6.6547300e-002  3.9757900e-002
 -3.0499200e-002  6.6751700e-002  3.8962500e-002
 -2.7736500e-002  6.6594400e-002  3.9036500e-002
  3.0677000e-002  1.1889400e-001  1.8983900e-002
 -7.5155200e-002  1.5499400e-001  1.6365000e-003
  2.4242500e-002  1.2141200e-001  2.7897800e-002
 -8.0863100e-002  1.5479100e-001  1.3195000e-002
 -4.8700300e-002  1.1868100e-001  3.1083100e-002
 -9.1474500e-002  1.4061100e-001  1.9176300e-002
  3.5765400e-002  1.1023000e-001 -1.2990600e-003
 -9.0990100e-002  1.4593100e-001  2.5675400e-002
 -7.2136400e-002  1.5629900e-001  1.9189800e-002
 -5.5174500e-002  1.5345000e-001  2.4527100e-002
 -2.5062600e-002  1.1926400e-001  3.1032800e-002
 -3.6496400e-002  1.1868500e-001  3.0852900e-002
 -5.0850900e-002  1.4550100e-001  1.3405900e-002
 -6.9195900e-002  6.3634400e-002  2.2019900e-002
 -5.0094600e-002  1.4552500e-001  1.1488500e-002
 -7.7665300e-002  1.5763000e-001 -1.5912800e-002
 -1.0478600e-002  1.2370000e-001  3.3049800e-002
 -8.7057000e-002  1.0977000e-001  1.6344900e-002
 -8.7712900e-002  1.0431900e-001  1.0383100e-002
  4.2506000e-002  6.6019300e-002  2.7609900e-002
  4.5688700e-002  6.5655900e-002  2.7489200e-002
  4.8498300e-002  6.5823800e-002  2.8019100e-002
  5.1640100e-002  6.5666600e-002  2.7824700e-002
  5.3908600e-002  6.5368200e-002  2.7169200e-002
 -8.7635300e-002  1.2806300e-001  5.3352100e-004
  4.4362200e-002  8.6809900e-002  2.4151000e-002
  4.4967200e-002  8.9671000e-002  1.9164700e-002
 -7.7317600e-002  1.5736000e-001 -1.3081100e-002
 -7.1095000e-003  1.3052200e-001  1.6552500e-002
 -1.3890700e-002  1.2932300e-001  1.3949700e-002
 -7.7904400e-002  1.5425000e-001  2.8003000e-002
 -8.0687100e-002  1.5364600e-001  2.7541600e-002
 -8.0762800e-002  1.3300900e-001 -3.9905900e-003
 -3.9868200e-002  1.0493700e-001 -2.0386300e-002
 -5.9986400e-002  9.0152600e-002 -1.9851500e-002
 -3.3821400e-002  8.9396800e-002 -2.4544200e-002
 -8.4096600e-002  1.1670700e-001 -1.3550000e-003
 -1.0467700e-002  9.0094000e-002 -3.6607600e-002
 -7.8936100e-003  8.9842000e-002 -3.6349200e-002
 -7.1644900e-002  6.3916900e-002  1.9060300e-002
 -5.9666100e-002  1.1290600e-001 -1.5081600e-002
  1.3227200e-002  1.0765100e-001 -1.8877200e-002
 -4.8554600e-003  1.0381600e-001 -2.3092700e-002
 -4.2352500e-002  6.9500800e-002  4.1773800e-002
 -3.9496800e-002  6.9099200e-002  4.1777700e-002
 -3.6500900e-002  6.9095800e-002  4.1703900e-002
 -2.6470200e-002  6.7676100e-002  4.0821700e-002
  3.5634800e-002  1.1227700e-001  2.2163900e-002
 -1.6336600e-002  1.2746600e-001  2.1668900e-002
 -1.9064400e-002  1.2793600e-001  1.3381800e-002
 -6.7742800e-002  1.6447100e-001 -1.8256000e-002
 -1.6488100e-002  6.9485300e-002  5.4508700e-002
 -1.3497200e-002  6.9470400e-002  5.4523100e-002
 -1.0697700e-002  6.9404600e-002  5.5338800e-002
 -8.5091600e-003  6.8870900e-002  5.5755800e-002
 -7.3051200e-003  6.9770100e-002  5.6538400e-002
 -4.5029800e-003  6.9654900e-002  5.6933200e-002
 -1.4904200e-003  6.9655900e-002  5.6864600e-002
  1.3155000e-003  6.9750600e-002  5.6289900e-002
  2.5057000e-003  6.8892100e-002  5.5859600e-002
  4.5065500e-003  6.9572800e-002  5.5762600e-002
  7.5093500e-003  6.9554200e-002  5.5552900e-002
  1.0253100e-002  6.9353300e-002  5.4766500e-002
  1.7323700e-003  1.3164500e-001  1.3473100e-002
 -6.0391600e-002  1.5519900e-001  2.5054500e-002
  1.8947900e-002  1.2722200e-001  1.8965800e-002
 -3.3772600e-002  1.7759300e-001 -7.3228300e-003
 -8.2597100e-002  1.0332800e-001 -3.6073400e-003
 -9.3219300e-002  1.2753800e-001  1.3253300e-002
 -3.0556000e-002  1.5388100e-001 -4.3833300e-003
 -7.5002800e-002  1.5685500e-001 -4.5333700e-003
  4.3793600e-002  9.8041600e-002  1.3160000e-002
 -9.2047900e-002  1.2762200e-001  3.1250400e-002
  4.4530500e-002  6.6417800e-002  2.6431600e-002
  3.6468400e-002  1.0458800e-001 -7.5447900e-003
 -9.0455300e-002  1.3434900e-001  1.0218700e-002
  4.3756500e-002  8.6736600e-002  2.5669300e-002
 -1.5332200e-003  1.3093500e-001  1.9155600e-002
 -6.9232500e-002  1.6195400e-001 -1.1591200e-002
 -5.9781500e-002  1.5573900e-001  1.8731600e-002
 -5.9941000e-002  1.2223800e-001 -8.7472900e-003
 -2.1729700e-002  1.0484500e-001 -2.2843500e-002
 -3.6617300e-002  8.9483900e-002 -2.3973100e-002
 -8.3149800e-002  1.1446600e-001 -1.2031300e-003
 -3.6856900e-002  1.5683500e-001 -1.0766000e-002
 -6.0166000e-002  3.7021000e-002  4.5402800e-002
 -4.7974100e-003  9.0172700e-002 -3.5774900e-002
  9.9995800e-003  1.0336200e-001 -2.0759900e-002
 -4.6029300e-002  6.9454600e-002  4.0735900e-002
 -3.4504700e-002  6.9778300e-002  4.1473300e-002
 -3.2999700e-002  6.9708900e-002  4.0692800e-002
 -3.0501000e-002  6.9612500e-002  3.9592400e-002
 -2.8028800e-002  6.9648000e-002  3.9862100e-002
 -2.6496200e-002  6.9078800e-002  4.1559900e-002
 -7.8125200e-002  1.5190500e-001  3.3994500e-002
 -6.9026500e-002  1.6568000e-001 -1.9457200e-002
 -9.4830300e-003  7.0323300e-002  5.6158500e-002
  1.9146400e-002  1.1586400e-001  3.6130200e-002
  1.6499800e-002  1.1608800e-001  3.6593900e-002
  1.3303900e-002  1.1616300e-001  3.6976000e-002
  4.4930000e-003  1.1622700e-001  3.9614700e-002
 -7.8338600e-002  1.0436100e-001 -7.7966800e-003
 -4.5496600e-002  1.1796800e-001  3.0637900e-002
 -4.2502500e-002  1.1866100e-001  3.0474400e-002
  3.4925100e-003  1.1828800e-001  3.8511300e-002
 -6.9994500e-003  1.1832300e-001  3.8382900e-002
 -4.4876300e-003  1.1830400e-001  3.8920400e-002
 -8.9044100e-002  9.9017800e-002  1.9396000e-002
 -1.3846300e-002  1.2918200e-001  1.0353600e-002
 -1.3244600e-002  1.1585300e-001  3.8837200e-002
 -7.0579200e-003  1.2394600e-001  3.3733200e-002
 -8.8919600e-002  1.0169600e-001  1.6383000e-002
 -8.9507300e-002  1.3724300e-001  3.7184400e-002
 -6.8945000e-002  1.2968800e-001 -9.0071600e-003
 -7.5014200e-002  1.3584600e-001  5.0515000e-002
 -7.6977800e-002  1.4420500e-001  4.4748700e-002
  4.2401600e-002  6.8827800e-002  2.7710500e-002
  4.3572200e-002  6.9274800e-002  2.6000500e-002
  4.8997500e-002  6.7824100e-002  2.6498700e-002
  5.1007900e-002  6.7821900e-002  2.6500200e-002
  5.1481500e-002  6.9273900e-002  2.5041000e-002
  5.4190600e-002  6.8810600e-002  2.4747300e-002
 -8.7862900e-002  1.3775600e-001  7.2013300e-003
 -9.1832100e-002  1.2763800e-001  3.6747100e-002
 -8.9449800e-002  9.5641500e-002  1.6418500e-002
  1.3503500e-002  1.2810500e-001  2.5055800e-002
 -5.7460500e-002  1.5779500e-001  7.2460500e-003
 -4.7985600e-002  1.3634600e-001  1.3513300e-002
 -7.5042700e-002  1.5223800e-001  3.4740700e-002
 -6.8938600e-002  1.2750500e-001 -9.0243900e-003
 -5.7059600e-002  1.4517800e-001 -1.7847800e-003
 -7.8057500e-002  1.1545400e-001 -4.8611900e-003
 -7.1871000e-002  1.1573900e-001 -7.7060300e-003
 -7.2098900e-002  1.0733700e-001 -1.0930200e-002
 -6.5972100e-002  1.6017300e-001 -5.6852300e-002
 -2.4079200e-003  8.9776500e-002 -3.5478800e-002
 -6.8953800e-002  1.3332700e-001 -8.4241200e-003
 -4.4984800e-002  7.0511800e-002  4.1706200e-002
 -1.3199100e-002  1.2842300e-001  2.1907800e-002
 -5.7474500e-002  1.5531900e-001  1.6184300e-002
  4.4400400e-002  7.2120900e-002  2.4038200e-002
 -5.4321100e-002  1.5447000e-001  1.3469600e-002
 -1.6651400e-002  7.2144300e-002  5.5024200e-002
 -1.3705600e-002  7.2194700e-002  5.5263700e-002
 -1.1505700e-002  7.1660400e-002  5.5867200e-002
 -1.0292200e-002  7.2567500e-002  5.6597100e-002
 -7.4974300e-003  7.2522400e-002  5.7799600e-002
 -4.5020200e-003  7.2551600e-002  5.8371100e-002
 -1.4806000e-003  7.2514100e-002  5.8001700e-002
  1.5257100e-003  7.2418500e-002  5.6754100e-002
  4.5029700e-003  7.2389500e-002  5.6229100e-002
  7.3106900e-003  7.2526400e-002  5.6215500e-002
  8.5198000e-003  7.1653800e-002  5.5774600e-002
  1.0213400e-002  7.1972500e-002  5.5091100e-002
  1.0369400e-002  1.1625800e-001  3.7811600e-002
 -4.4912600e-003  1.1624800e-001  4.0073400e-002
 -1.4940800e-003  1.1626100e-001  4.0384900e-002
 -4.8516100e-002  1.6380200e-001  5.0901000e-003
 -4.2364400e-002  1.2130700e-001 -1.2298100e-002
 -7.2501200e-002  1.1968700e-001  5.3448400e-002
 -3.9499500e-002  1.1869500e-001  3.0820600e-002
 -5.3328200e-002  1.5252400e-001  1.6999600e-002
 -2.8547300e-002  9.0018000e-002 -3.0846900e-002
 -7.4993200e-002  1.4420300e-001  4.4983300e-002
 -9.2622500e-002  1.2490800e-001  3.6763700e-002
 -1.0262500e-002  1.6901400e-001 -1.9040500e-002
 -9.3723600e-002  1.2209900e-001  1.3284400e-002
 -4.5611900e-002  1.6625100e-001 -7.4550900e-003
 -5.1431600e-002  1.5992000e-001 -4.1187500e-003
 -6.8733300e-002  1.8089700e-001 -5.7612100e-002
